-380.512,144.31,127.81,0.561204,0.688346,-0.459456
-224.894,108.987,-481.301,0.369303,0.917494,-0.143515
-449.205,133.011,-32.0114,0.469285,0.8394,0.273643
-705.465,161.848,437.147,0.246064,0.839816,0.483666
-499.485,11.144,-690.405,0.0704881,0.815528,-0.573716
509.778,286.687,-45.8856,-0.466141,0.798976,0.377501
-371.119,189.369,535.591,-0.266528,0.947567,-0.169231
825.987,191.227,679.59,0.493546,0.823246,-0.279438
-430.013,95.5143,817.472,-0.448882,0.877606,0.166164
1007.95,127.837,-697.54,0.159893,0.778963,0.606251
628.272,192.382,187.868,-0.0143932,0.615371,0.787503
-72.3769,188.65,857.797,0.526955,0.756572,-0.387056
250.999,4.14581,-575.952,0.042068,0.986534,0.157682
201.612,118.438,-113.648,-0.693656,0.687563,0.213166
401.233,114.026,-667.263,0.137414,0.739937,0.65831
253.452,103.8,-241.532,-0.352831,0.724541,-0.589509
-313.771,201.198,647.819,-0.382725,0.885423,0.262157
-266.391,138.18,-428.163,0.448007,0.893434,0.00141036
400.971,74.4368,505.334,-0.267088,0.770808,0.578016
341.692,4.25,1081.81,0.108774,0.992579,-0.0305397
585.001,138.888,488.031,0.12664,0.917281,-0.370471
506.603,195.531,-330.705,-0.362179,0.772672,-0.521317
268.467,5.67422,-581.797,-0.0975687,0.960057,0.26196
128.439,65.9628,863.107,0.550101,0.720546,-0.42185
291.668,193.041,-150.247,-0.660787,0.746427,0.0267315
-4.91036,139,911.022,0.667751,0.56483,0.484184
-34.3711,70.5288,1108.22,0.114416,0.9406,0.318346
-9.30201,158.22,-787.871,-0.244056,0.542121,0.798166
685.695,-0.0193876,1132.44,-0.0125382,0.999911,-0.00301171
-809.097,176.569,54.8604,-0.495348,0.843252,-0.202159
-488.064,176.007,452.423,-0.141295,0.837467,0.526559
-679.63,196.367,323.525,-0.488606,0.845666,0.214482
132.111,51.4687,-25.2645,-0.474689,0.854551,0.210535
-493.576,286.316,-418.286,0.101643,0.863012,-0.490479
376.041,68.1513,485.588,-0.413081,0.837362,0.355553
467.339,196.894,175.562,-0.530288,0.812852,0.238465
-306.835,22.2692,-601.039,0.882702,0.395735,-0.252414
-709.08,-2.76611,-806.166,0.265635,0.939915,-0.198242
217.489,-0.116545,-439.526,0.0236397,0.999684,-0.00238911
-332.946,151.803,-303.104,0.395434,0.610655,0.684495
660.315,305.896,-71.9853,0.44304,0.868973,-0.20864
666.753,181.779,741.121,-0.239902,0.746131,0.616963
-283.988,3.91311,1187.61,0.0742441,0.985261,0.151762
-702.377,224.434,113.601,-0.0803855,0.992735,-0.0891121
-246.152,155.141,897.965,0.0951192,0.883269,0.458309
-285.586,42.0094,1062.28,0.161952,0.852106,0.496638
-237.69,9.90497,-96.6228,0.238629,0.970789,-0.0245628
569.313,171.74,238.621,0.226631,0.807011,0.544929
-359.199,202.842,-382.943,0.604308,0.773386,-0.191034
87.0533,-2.92973,533.291,0.0545899,0.991701,0.116098
716.848,15.8497,1049.16,-0.255658,0.957216,0.135191
655.403,107.586,345.556,0.247353,0.85328,0.456793
-464.83,190.171,150.098,0.228815,0.909246,-0.347091
778.458,8.98582,-561.435,-0.0394294,0.967708,0.248387
-232.545,35.3091,-769.879,-0.787773,0.280531,0.542159
196.42,12.397,-622.757,-0.10895,0.943365,0.313234
679.472,11.3952,1031.28,-0.033466,0.956173,0.289156
-231.162,2.43846,20.9046,0.185095,0.969251,-0.162041
-207.541,83.1903,-325.115,0.632221,0.54764,0.546249
759.288,159.187,569.87,-0.0559147,0.858021,-0.50879
198.207,20.3879,1067.81,0.229124,0.947972,-0.218775
-470.459,181.605,337.223,0.254788,0.927304,-0.272749
-182.003,17.7811,1162.92,-0.120062,0.964469,0.235266
64.7796,26.6759,-81.2456,-0.577155,0.790695,0.202543
48.3767,46.7436,702.646,0.782257,0.538495,-0.308588
-667.767,220.73,-172.222,-0.0665096,0.781582,0.620003
-458.568,273.386,-291.623,-0.0867058,0.720491,0.68582
954.991,82.8431,760.61,0.607722,0.776772,0.164264
-136.232,189.31,565.662,0.622578,0.778938,0.0658405
426.541,0.256778,880.21,-0.214405,0.845527,0.488874
778.312,161.31,101.589,0.532094,0.840646,0.0959665
-637.664,241.129,201.886,0.300102,0.945625,0.114652
-251.163,187.757,670.884,0.024405,0.961132,0.274785
642.411,179.799,727.234,-0.350573,0.848756,0.394924
-162.024,175.185,889.141,-0.2438,0.969714,0.00344178
396.947,101.893,467.421,-0.764752,0.62163,0.167358
65.0988,3.97441,577.817,0.277765,0.947157,-0.158915
4.94801,-0.614925,372.752,0.0359913,0.969722,-0.236246
-160.838,188.359,544.974,-0.20191,0.785529,-0.582379
-800.812,182.388,73.8616,-0.583731,0.810702,-0.0365296
218.963,121.126,17.914,-0.383578,0.847374,0.364786
-98.0118,73.4117,1094.84,-0.00323467,0.891647,0.451792
74.6811,-0.688313,563.096,0.233397,0.966926,-0.102641
29.9698,106.948,929.501,0.557812,0.829577,-0.000559065
474.549,260.342,7.84328,-0.0544692,0.944093,0.323861
-272.698,136.174,-458.936,0.386862,0.897055,-0.207122
-124.968,96.7722,432.78,0.686769,0.564109,-0.42949
-455.24,145.715,45.9894,0.54602,0.810931,-0.209486
-467.537,197.666,-195.927,0.7042,0.668237,-0.233812
81.2715,87.7222,-729.091,-0.549952,0.541206,0.632301
639.691,251.189,-181.463,0.379946,0.866822,-0.31788
-551.914,145.695,508.18,-0.0652662,0.801774,0.593614
-449.316,282.839,-364.764,0.668741,0.519922,-0.528618
339.972,3.92616,682.456,-0.53294,0.844403,-0.0371178
-500.909,164.958,-56.7748,0.425315,0.819529,0.383388
923.761,13.0302,-575.297,0.254569,0.904728,0.337188
386.991,61.2477,518.385,-0.24751,0.821335,0.513885
-445.797,143.673,594.476,-0.598258,0.800794,0.0274001
-232.696,42.7126,1071.43,-0.145995,0.926047,0.347855
-179.287,10.0573,206.544,0.304807,0.952033,-0.0229861
-144.834,134.254,987.844,-0.427758,0.664577,0.604569
-516.302,89.0155,-626.857,0.263083,0.727435,-0.627953
-135.208,-1.28175,-46.3179,-0.0126528,0.997356,0.0713217
-222.612,5.92875,-93.0801,0.270003,0.96149,-0.0506711
821.1,3.4395,1205.01,0.11055,0.990886,-0.073976
73.7229,20.2987,34.8729,-0.50811,0.850013,-0.138632
-500.976,171.019,456.397,-0.213782,0.891843,0.397132
579.523,121.492,320.96,0.207747,0.886619,0.412242
389.79,-1.23856,1234.05,0.0583368,0.994077,-0.0896955
-441.969,88.4421,842.533,-0.410102,0.909395,-0.0660292
-575.266,192.295,-109.492,-0.0822011,0.797371,0.590669
949.483,86.48,767.253,0.654717,0.752508,0.0680533
285.291,103.439,269.763,-0.780749,0.443052,0.437059
593.754,26.5233,901.612,-0.304073,0.934533,0.18474
149.641,35.5232,1101.09,0.580714,0.810921,0.0700665
771.679,65.0716,956.026,-0.440098,0.817162,0.369705
659.902,104.214,807.512,-0.543086,0.750095,0.375175
-101.908,29.4787,-351.403,0.422966,0.902797,-0.0760737
320.184,100.194,316.756,-0.77179,0.633499,0.0267497
267.222,-0.20404,967.129,-0.00655967,0.999324,0.0334913
664.937,283.013,-99.4811,0.607266,0.685719,-0.399607
-497.817,149.736,494.046,0.0722894,0.845985,0.527353
-681.643,130.618,534.71,-0.0269393,0.996061,0.0831511
-245.45,162.92,883.699,0.211167,0.799805,0.560718
-333.482,128.798,175.361,0.355492,0.858388,-0.36937
569.352,248.358,-742.005,0.572099,0.50326,0.640441
-203.572,9.48413,162.931,0.287625,0.926695,-0.240822
-704.771,179.946,354.252,-0.199923,0.95013,0.239162
1059.18,2.80198,-572.204,-0.0596463,0.985727,0.153348
-232.486,106.554,-382.545,0.58545,0.768671,0.256236
-473.765,186.521,352.848,0.224348,0.955636,-0.190095
-380.09,118.013,811.379,-0.159345,0.873945,0.458211
-178.575,-1.06471,37.1416,0.0217504,0.996144,-0.0843978
-737.379,166.291,445.386,0.16566,0.838123,0.519712
-493.291,188.439,305.575,0.21416,0.976003,-0.00704756
802.003,105.01,-644.57,0.00126743,0.667698,0.741207
-281.761,152.175,841.875,-0.63953,0.760764,0.0502482
-643.876,232.269,227.121,-0.00969749,0.922377,0.384375
270.443,3.13319,574.752,-0.501047,0.744694,0.434991
-266.508,28.1468,1092.86,-0.238677,0.951501,0.192301
-649.727,231.119,121.097,0.124996,0.983625,-0.129567
387.183,67.8579,506.631,-0.46843,0.836674,0.283704
863.706,4.31267,1131.37,0.0468363,0.997129,-0.0526688
-138.235,184.81,872.818,-0.47624,0.863871,0.162823
60.1245,36.2984,706.89,0.638884,0.671824,-0.369691
-448.942,134.291,-48.0062,0.603225,0.7952,0.060836
273.214,178.097,-760.508,-0.769828,0.465232,0.409839
1094.39,135.159,-741.551,-0.0765961,0.902475,0.423274
315.359,79.1484,330.848,-0.589173,0.631,0.503565
-167.463,5.96567,-168.753,0.0564436,0.986579,-0.152921
-464.487,143.138,-43.7529,0.252229,0.909163,0.331151
161.533,70.7076,-2.11448,-0.674257,0.642231,0.362659
100.01,0.912315,592.836,-0.0140891,0.994464,-0.0931299
-565.043,281.866,-403.357,-0.0549405,0.983711,-0.170165
356.999,232.41,-215.359,-0.490477,0.792802,-0.361316
-295.523,16.2856,1115.05,-0.192102,0.954926,0.226146
333.635,158.693,228.337,-0.378897,0.818521,0.427857
542.888,116.275,417.698,0.387012,0.911539,-0.138959
-529.219,93.3105,769.63,-0.198792,0.946831,0.251709
699.631,193.075,166.596,0.622094,0.768814,-0.144004
-94.3556,162.187,674.184,0.334101,0.942184,-0.0196896
-694.627,208.981,25.9097,-0.216799,0.957732,0.188572
-531.774,287.995,-245.82,0.243554,0.865092,0.435402
-313.719,197.318,495.773,-0.131263,0.951272,-0.276787
-91.7236,0.419956,-663.675,-0.0481888,0.980461,0.189868
961.232,36.5879,899.312,0.242982,0.937053,0.250386
-272.188,119.72,-500.717,0.369411,0.851251,-0.372536
549.113,168.979,243.089,-0.387686,0.740083,0.547923
177.565,85.544,88.8335,-0.632105,0.771133,-0.0721732
622.718,190.645,623.323,0.0684192,0.909692,0.409278
-664.972,213.129,-161.55,-0.195495,0.784705,0.587978
-384.773,175.004,270.591,-0.0192845,0.959213,0.278118
-698.939,57.2765,-685.531,-0.338461,0.478905,-0.80582
639.585,280.157,10.4887,-0.559537,0.734248,0.382201
727.541,111.399,342.867,0.163729,0.778558,0.603894
-703.525,237.349,192.553,-0.0777358,0.994395,0.0561515
-269.707,83.2313,983.938,-0.124943,0.867977,0.478597
219.596,0.986773,-468.222,0.0866809,0.992872,0.0781503
-563.312,288.056,-258.926,-0.183848,0.647844,0.733908
136.333,60.4001,-133.966,-0.384416,0.919033,-0.0853041
-517.916,250.541,-454.229,0.349529,0.661937,-0.65953
-83.9406,-0.683571,-235.133,0.569425,0.821534,0.0138928
-32.0705,5.37501,387.941,0.0948483,0.982272,-0.161057
-458.853,144.604,537,-0.518309,0.841873,0.14231
584.141,203.474,-342.12,0.48253,0.833167,-0.269683
-71.3253,15.4014,406.606,0.037941,0.869326,-0.47731
-662.745,221.162,274.972,-0.105979,0.954366,0.278896
607.792,6.87872,1023.82,-0.150224,0.986323,0.062002
796.712,109.2,871.745,-0.247354,0.924319,0.276295
847.509,17.4539,-578.783,-0.493261,0.723683,0.472086
84.7741,10.1817,200.072,0.0727146,0.987766,0.13559
632.812,-3.24972,1193.04,-0.0502961,0.981882,0.182134
615.659,254.329,71.1293,-0.226367,0.95591,0.172205
642.738,179.344,728.657,-0.34781,0.856625,0.378231
15.1951,134.878,820.729,0.433057,0.850446,-0.296174
-621.144,217.913,-155.829,-0.290661,0.861447,0.41517
-647.822,223.036,75.9633,-0.0216145,0.956438,-0.290959
166.035,31.4318,1083.28,0.388795,0.915586,0.101782
840.551,95.7273,889.396,0.23788,0.757688,0.607385
630.057,8.1375,1026.81,-0.0187178,0.998121,0.0458898
117.316,72.6669,858.02,0.685119,0.701763,-0.17947
801.669,202.227,670.452,0.616467,0.74756,-0.245279
-802.023,176.728,41.3613,-0.411695,0.901236,-0.12327
857.053,6.57079,1141.65,0.0933379,0.968883,-0.225735
-84.6063,1.37839,-273.523,0.1591,0.966275,0.201715
186.086,6.51584,-605.1,-0.183779,0.973788,0.133358
496.748,260.757,30.8643,-0.279333,0.956851,-0.0332947
268.801,-2.4398,1177.54,-0.153997,0.95653,-0.243893
-575.799,196.017,-113.89,-0.218251,0.745996,0.629033
-305.394,163.675,787.099,-0.295985,0.911186,0.280733
-494.94,308.166,-356.284,-0.162505,0.984889,-0.0100434
802.661,238.203,-839.462,0.429184,0.863496,0.25031
902.529,0.0354104,1198.08,-0.224885,0.941692,0.248305
297.945,153.83,160.444,-0.518504,0.853345,0.0346489
301.619,205.331,-113.019,-0.546383,0.805058,-0.226393
-357.516,183.94,352.426,-0.0849995,0.968275,0.226169
-402.583,107.546,-594.995,0.389039,0.624433,-0.676013
585.151,44.4026,816.219,-0.414796,0.830052,0.372574
-293.043,137.837,225.408,0.720597,0.635791,-0.269753
187.836,17.5295,909.943,0.478927,0.849857,-0.218186
1237.46,1.47624,-677.35,0.000791517,0.93628,0.350879
292.004,10.5442,-430.116,-0.21433,0.934038,-0.285205
-194.701,91.4436,-423.281,0.521789,0.839221,0.149049
730.574,199.735,656.371,-0.255517,0.808126,-0.530604
-664.668,234.086,-194.811,-0.461752,0.849639,0.252945
275.041,2.67231,-562.41,0.0370901,0.996194,0.0738169
797.859,121.073,841.182,0.201382,0.837578,0.507772
-98.7474,133.067,507.418,0.659727,0.660241,-0.355639
-72.6387,194.955,909.652,0.298524,0.800213,0.519869
-701.435,127.626,557.683,0.126809,0.948975,0.287082
-364.569,-2.40367,-652.627,0.15566,0.970051,-0.18571
-602.364,220.611,-150.678,-0.2336,0.904607,0.353474
880.905,102.495,860.488,0.307566,0.932627,0.187145
-333.793,63.816,-47.4527,0.585334,0.789635,0.165444
595.946,232.955,135.949,0.274441,0.917246,0.287577
426.903,190.361,-317.906,-0.00333656,0.808036,-0.589102
-223.305,111.073,-437.907,0.668976,0.741711,-0.0466801
642.841,246.103,-190.465,0.500891,0.833086,-0.23291
186.818,15.7376,898.629,0.457617,0.887047,-0.0583448
674.122,151.535,523.205,0.423569,0.78803,-0.44568
-410.867,104.975,-601.828,0.0937616,0.728908,-0.676704
52.0839,68.5742,1043.15,0.219569,0.966396,0.133191
-208.08,1.5859,-76.0222,0.270068,0.958008,0.0953722
301.525,-0.446283,992.84,-0.00973652,0.999759,-0.0185927
-223.285,19.0729,1137.98,-0.106964,0.974701,0.19603
545.799,33.9064,813.817,-0.10976,0.852264,0.509891
729.201,165.375,218.203,0.503638,0.793733,0.339417
390.249,50.7862,538.625,-0.437994,0.842517,0.313259
929.156,45.1091,941.368,0.487569,0.870046,0.0724264
-235.71,136.389,319.071,0.419564,0.846379,-0.328027
991.419,149.821,-763.239,-0.0655999,0.988145,0.135487
-695.728,225.194,114.556,-0.125366,0.985951,-0.109948
-164.835,163.653,498.161,0.625175,0.770644,-0.106973
-99.5205,51.0934,-403.334,0.404475,0.84633,0.344354
-664.164,151.061,-572.945,0.0724092,0.811421,-0.579946
-584.121,240.54,-202.712,-0.0493513,0.954219,0.293364
-436.543,-0.473546,-688.08,0.151068,0.926161,-0.344103
-199.741,16.3207,-213.502,0.414316,0.895253,0.162294
-558.572,211.237,201.926,-0.00485006,0.85242,0.521158
602.831,41.4283,850.786,-0.469546,0.863538,0.180713
-395.305,178.662,581.462,-0.475167,0.866066,0.152644
245.422,2.78374,869.639,0.242647,0.954286,0.172352
-141.229,291.267,-1222.96,-0.0578844,0.361585,-0.928767
188.992,-1.52723,661.706,0.350423,0.929601,-0.0778486
115.523,177.239,-798.578,0.184538,0.76244,0.619983
305.528,1.66853,1181.85,-0.0576607,0.991509,-0.113911
-443.727,182.658,-1163.13,-0.0909164,0.798408,-0.594653
618.884,193.038,-710.973,0.338886,0.675566,0.653646
-590.314,192.952,-110.399,0.00307947,0.840843,0.538711
-576.214,114.201,559.565,0.0560963,0.946124,0.31739
-117.739,172.585,759.041,0.391813,0.89758,-0.19407
477.638,261.275,3.81387,0.25023,0.945965,0.186805
-772.69,201.609,97.9923,-0.57071,0.806719,0.153057
-320.904,191.138,352.497,-0.0556757,0.984432,-0.165879
-572.437,279.059,-412.921,-0.0650204,0.970534,-0.229101
158.225,1.60928,-461.057,-0.234117,0.970101,0.0560423
711.881,79.571,870.218,-0.212386,0.764122,0.607173
-171.684,0.895378,-702.474,-0.0351375,0.955543,0.292722
-418.642,194.847,-479.498,0.511044,0.69888,-0.500009
-67.4439,76.7792,1100.66,-0.0349345,0.920748,0.388395
687.617,148.603,-667.993,0.319769,0.633486,0.704435
534.538,257.895,87.3979,-0.101703,0.964086,0.244259
298.399,9.39587,-435.742,-0.0484995,0.944183,-0.325516
-201.54,203.386,538.721,0.458048,0.84533,-0.274924
-569.466,310.747,-352.146,0.182082,0.970177,-0.157841
196.501,152.431,-752.944,-0.101705,0.628444,0.769642
-584.459,207.843,-511.653,0.162618,0.523904,-0.829871
248.181,-1.80298,961.754,-0.0178411,0.990942,-0.127142
-484.624,158.279,-60.4262,0.367278,0.800877,0.472681
145.689,66.8065,-74.6969,-0.558417,0.828235,0.0110282
93.6299,30.9321,-15.722,-0.21761,0.966072,0.136991
294.159,-0.427638,1133.51,-0.209497,0.938432,0.268143
-476.062,61.4208,920.051,-0.379547,0.903048,0.200454
155.706,37.3314,1061.81,0.355289,0.921323,0.151744
-622.352,88.3562,-643.763,-0.372205,0.519644,-0.768905
-29.0276,12.3087,450.134,0.324749,0.925084,-0.196657
307.197,-0.666086,979.887,-0.0371784,0.997802,-0.0537435
135.451,28.6333,155.471,-0.162708,0.984261,0.0666433
-311.825,163.378,-425.355,0.613846,0.739738,-0.274099
-431.851,189.157,176.172,0.3746,0.926678,0.012086
287.327,1.00542,1181.02,0.0302601,0.962975,-0.267459
683.575,130.92,315.724,-0.237048,0.785545,0.571292
-657.336,219.655,-168.583,-0.277738,0.758964,0.588248
-799.359,162.952,313.007,-0.13603,0.949579,0.28186
83.1719,91.9843,829.492,0.62984,0.770677,-0.0960097
-334.634,183.159,666.721,-0.207235,0.822037,0.530275
-308.916,160.594,-425.457,0.673002,0.700679,-0.233276
160.883,4.53779,-551.802,-0.181497,0.978213,0.0994849
-382.604,182.753,406.767,-0.344894,0.907275,-0.239688
84.4917,-2.48953,529.775,0.0585535,0.993944,0.0926841
74.4004,9.14088,203.437,-0.201672,0.973289,0.109208
698.522,103.308,838.066,-0.328665,0.81585,0.474719
770.526,66.5592,949.474,-0.54467,0.799555,0.252555
-759.17,216.88,216.041,-0.396326,0.829076,0.39417
-432.926,93.0827,821.654,-0.39988,0.88087,0.253254
899.288,15.1049,1101.29,-0.256189,0.962061,0.0937192
389.569,21.8119,676.482,-0.405107,0.890677,-0.205362
-389.037,143.289,100.141,0.566486,0.796303,-0.212014
275.276,73.3813,-669.574,-0.305856,0.718867,0.623122
-246.554,22.1094,1120.88,-0.0511894,0.938178,0.342312
696.124,138.595,793.096,-0.469381,0.701234,0.536413
-369.896,122.037,807.908,-0.254529,0.83362,0.485798
184.324,1.11928,738.126,0.137536,0.988681,-0.0592243
-151.452,1.99969,154.866,-0.173186,0.984637,-0.00820983
-423.257,87.3122,873.427,-0.252584,0.908241,0.329828
-119.408,38.4458,-361.335,0.518654,0.854737,-0.0110113
-120.964,3.74797,270.017,0.197306,0.976575,-0.0852937
-0.409481,133.818,800.812,0.462949,0.878947,-0.104875
769.762,155.155,130.323,0.222784,0.870848,0.438155
-611.659,95.2741,628.049,-0.387461,0.872159,0.287794
-240.162,153.085,902.438,-0.235437,0.889475,0.384913
606.852,186.572,657.136,-0.378578,0.892649,0.243418
-682.159,211.057,26.9144,-0.142782,0.978952,0.14527
-404.45,173.181,506.019,-0.465331,0.881265,0.0807367
-362.68,206.461,-380.131,0.620248,0.766382,-0.16641
-648.353,71.1517,676.984,-0.52176,0.846957,-0.100881
-324.749,113.687,-535.909,0.193796,0.763577,-0.614613
758.733,206.721,715.588,-0.0386342,0.90881,0.415041
2.43464,200.112,-843.175,-0.259175,0.820204,0.508781
-699.321,225.851,249.535,-0.354436,0.820333,0.448325
701.192,157.752,-679.012,0.142855,0.655637,0.741156
533.787,191.807,206.382,0.234598,0.792966,0.560646
767.333,148.247,148.058,0.401014,0.864355,0.302258
957.897,20.8996,1038.73,0.121939,0.937321,0.325492
671.799,82.3571,840.615,-0.29427,0.625526,0.717987
695.248,160.925,558.716,0.212136,0.746573,-0.629838
19.0425,20.249,1226.72,0.234158,0.95726,0.168052
184.348,0.82542,733.278,0.149666,0.986897,-0.0599257
65.6226,27.4466,1185.66,0.149304,0.924596,0.349993
-404.399,185.437,-477.738,0.43757,0.68682,-0.579975
552.755,117.847,363.969,0.0639842,0.95204,0.294538
900.522,125.339,778.129,0.492346,0.754197,0.434466
-777.574,164.861,379.27,-0.280527,0.959718,-0.00790601
-496.153,131.397,551.225,-0.0815778,0.983452,0.160774
794.835,123.851,838.146,0.294297,0.803102,0.517241
-41.2893,24.0087,1246.76,-0.157295,0.943958,0.289944
4.28217,105.908,982.244,0.0220684,0.908933,0.414056
-103.695,169.687,951.065,0.286686,0.766935,0.569853
194.268,107.143,-16.9014,-0.669695,0.741516,0.00481923
-394.007,178.738,231.896,0.133434,0.990454,0.0307421
-203.04,83.7675,-378.769,0.507318,0.858656,0.057679
-369.98,33.9157,-831.939,-0.428582,0.647812,0.626285
233.613,99.3536,159.629,-0.544427,0.751915,-0.369772
28.7986,110.536,914.74,0.551011,0.765037,0.333001
354.101,168.908,223.385,-0.253676,0.912031,0.320545
-799.448,179.197,31.6227,-0.446075,0.869668,0.210125
142.638,0.612622,684.749,0.0597166,0.998161,0.00251265
882.817,148.071,748.244,0.626521,0.672996,0.369499
-447.68,140.573,44.9798,0.478939,0.824319,-0.299986
-531.01,128.513,-573.862,0.157,0.82107,-0.54842
-294.291,36.4421,-60.6392,0.659456,0.718864,-0.21011
507.211,290.493,-63.0634,-0.477962,0.836115,0.268204
490.459,111.706,-623.171,-0.399967,0.73032,0.552351
-31.1066,104.219,609.773,0.513642,0.846787,0.0988435
311.324,25.5966,504.646,-0.255235,0.869852,0.419522
-654.285,240.335,209.497,-0.0807662,0.915897,0.387749
253.392,204.427,-793.539,0.582084,0.483174,0.644931
-419.126,164.824,-528.763,0.61311,0.70118,-0.362542
668.907,185.733,736.732,-0.40425,0.777896,0.479439
366.198,0.252922,-518.566,0.104738,0.990493,0.0886561
-391.053,15.4082,-816.177,0.0481067,0.869863,0.490564
-433.905,70.4342,-639.068,0.0437679,0.790038,-0.605704
-170.678,31.614,1129.41,-0.379945,0.825636,0.416877
163.481,29.4583,219.156,-0.274975,0.96111,0.0151731
747.351,97.7981,879.999,-0.198486,0.742768,0.63028
-376.247,134.523,-526.668,0.386073,0.72584,-0.567006
438.888,233.283,-252.4,0.0448372,0.845268,-0.53214
686.114,186.65,748.821,-0.246157,0.818885,0.51751
696.098,97.1129,844.621,-0.285357,0.692187,0.662288
-112.21,151.045,524.816,0.672509,0.695473,-0.215333
80.1801,192.745,-824.602,-0.308644,0.747384,0.588192
725.559,167.153,219.844,0.585619,0.747615,0.312838
-490.366,130.966,557.342,-0.16025,0.972605,0.167968
-373.34,136.352,123.98,0.574437,0.703119,-0.418892
-568.84,182.44,-85.3392,0.114772,0.923622,0.365113
405.144,150.099,282.962,-0.0336713,0.94171,0.333487
-127.022,7.1107,-125.501,-0.0555535,0.987252,0.146298
-510.846,238.282,-463.122,0.195744,0.659359,-0.725732
-684.797,242.929,193.474,-0.348891,0.934647,0.0561331
-599.385,187.257,8.23177,0.203375,0.92682,-0.315211
697.844,64.7066,886.918,-0.340575,0.832418,0.435269
553.556,139.232,678.79,-0.164451,0.578855,0.797123
177.422,6.24901,-470.149,-0.142956,0.989222,0.0238033
-195.174,15.8702,204.51,0.407177,0.91311,-0.0122568
763.014,214.766,46.4544,0.0823063,0.504599,0.857785
29.2077,104.576,960.404,0.542144,0.808899,0.227338
824.871,63.269,954.568,0.268796,0.906636,0.325027
569.055,107.718,390.416,0.227692,0.964197,0.134965
-688.764,195.07,312.302,-0.452508,0.819782,0.350407
-147.925,93.9101,368.262,0.79904,0.53362,-0.274588
-261.821,181.506,769.065,-0.226206,0.969822,0.0899503
-527.174,100.28,748.314,-0.115458,0.934941,0.332961
226.004,1.982,494.971,-0.598795,0.624906,0.492411
-8.0701,104.798,990.322,0.210962,0.930835,0.297582
-240.717,151.863,350.943,0.288425,0.834372,-0.467887
341.024,156.734,236.031,-0.364749,0.772338,0.513154
-599.728,96.3139,650.71,-0.34711,0.881,0.316755
342.959,8.3981,-477.271,0.196554,0.978361,-0.0641977
641.659,11.9064,1006.97,-0.179538,0.96863,0.171609
-169.61,165.081,926.795,-0.252787,0.810234,0.528491
-707.765,170.37,422.102,0.215471,0.873533,0.435757
-442.094,77.2393,888.072,-0.291133,0.946358,0.139351
760.887,122.673,843.77,-0.0378794,0.832743,0.551285
-697.442,220.085,261.703,-0.408763,0.800224,0.438631
256.105,163.011,-137.499,-0.472632,0.77312,-0.420545
-143.932,181.074,884.323,-0.373419,0.927624,0.000581971
-500.768,187.613,291.052,-0.023051,0.997293,-0.0649113
433.997,139.302,376.479,-0.352244,0.908527,0.221256
517.178,135.928,641.208,-0.514713,0.67146,0.529966
258.761,66.8157,-663.527,0.0884044,0.50771,0.856667
557.392,76.5051,741.638,-0.10329,0.713735,0.688885
-121.89,3.90526,-113.108,0.140087,0.933411,0.328634
159.155,75.55,-76.7067,-0.501704,0.859577,-0.0946238
338.832,60.9783,448.476,-0.415504,0.874727,0.248453
1219.19,3.16887,-570.653,-0.0744723,0.976263,0.20327
342.067,75.8005,422.83,-0.798227,0.3848,0.451562
134.55,2.86342,-516.434,0.0156378,0.983723,-0.177826
-177.75,162.039,-874.275,-0.300636,0.668717,0.679577
-12.4258,110.418,977.332,0.167407,0.87136,0.461186
-514.364,-2.55081,-849.263,-0.204923,0.947177,0.246395
-145.159,193.796,594.061,0.650027,0.679184,0.340278
3.02052,142.289,884.263,0.693514,0.683333,0.207754
986.808,14.1543,-598.788,0.105853,0.874798,0.470068
-174.877,1.10901,-564.234,0.485217,0.588034,-0.633154
203.833,116.699,-142.226,-0.683158,0.70304,-0.189734
-391.961,34.0686,1021.74,-0.381596,0.87656,0.280559
-389.232,184.836,547.003,-0.448288,0.879717,-0.157536
-475.614,175.917,455.338,-0.0755468,0.791136,0.606813
297.753,1.57844,-520.892,0.0844139,0.995905,-0.0294022
-449.914,255.53,-275.005,0.478283,0.677641,0.555037
-278.089,228.852,612.684,-0.0583319,0.90511,0.4173
237.245,39.7786,347.122,-0.386125,0.901314,0.193935
18.0207,116.597,915.754,0.499797,0.826882,0.253386
-530.168,228.424,-476.829,0.0753025,0.698054,-0.708084
-430.834,74.7964,-630.002,0.280032,0.837405,-0.468087
725.984,75.0718,888.284,-0.40372,0.774608,0.486117
938.969,37.2313,979.021,0.253834,0.939325,0.229742
602.11,213.175,184.686,0.607729,0.685995,0.392759
95.4679,24.1149,-178.883,-0.54674,0.816202,-0.186606
696.516,184.529,-710.027,0.109307,0.808235,0.578508
-401.683,162.252,133.811,0.48078,0.772693,-0.411462
240.504,107.087,170.445,-0.775769,0.629927,-0.0225487
546.876,143.132,518.345,0.0366369,0.850489,-0.524636
-325.222,209.299,536.72,-0.458123,0.876515,-0.147635
-415.026,-1.63059,-677.629,0.257127,0.925051,-0.276664
-547.735,193.042,248.229,0.227295,0.973532,0.0109599
142.05,32.2351,133.55,-0.3923,0.917165,0.0689095
-670.396,218.958,66.3475,-0.207928,0.96604,-0.152779
-542.277,89.0649,767.504,-0.396802,0.89324,0.210382
827.947,62.3829,954.605,0.217861,0.924643,0.311882
619.081,261.918,-171.026,0.602534,0.788805,0.118999
-390.579,104.427,-105.904,0.258474,0.941128,0.21686
-254.992,151.038,335.019,0.436021,0.846787,-0.301937
-501.593,200.984,141.426,0.0545128,0.966816,-0.249136
-207.631,200.758,516.01,0.361553,0.917661,-0.163586
-529.464,169.378,442.542,-0.200224,0.879931,0.429842
245.105,166.175,-100.038,-0.667483,0.702591,-0.24582
-573.27,303.778,-302.773,0.479119,0.863924,-0.151641
-414.224,174.799,390.341,0.109768,0.992743,0.0480054
-428.222,170.741,334.749,-0.0865374,0.996177,-0.00704367
-281.873,174.52,772.324,-0.406248,0.899731,0.155744
251.531,0.0193079,875.035,0.151442,0.952367,0.263486
-196.866,-0.925675,-81.4371,0.23432,0.969271,0.0615941
673.309,206.417,-246.068,0.286723,0.883407,-0.367747
-332.263,148.669,201.557,0.0922988,0.690286,-0.717569
-653.328,121.344,585.166,0.0883467,0.893092,0.440555
-571.392,7.33539,-703.909,0.203761,0.892651,-0.400235
-531.114,126.093,542.31,-0.369752,0.901304,0.224223
641.71,101.676,435.066,-0.0710251,0.955453,-0.285323
-362.885,180.844,468.646,-0.106794,0.951043,0.286187
347.77,2.62223,1069.9,0.229374,0.966627,-0.111041
194.661,29.418,260.967,-0.27941,0.949574,0.141756
67.7618,12.2052,90.1731,-0.139547,0.988889,0.0483778
382.13,112.959,426.803,-0.571892,0.812031,0.110108
-667.436,182.761,-514.282,-0.27928,0.839405,-0.465286
-520.659,188.477,263.184,0.123939,0.978306,0.164859
359.559,95.4231,418.005,-0.663057,0.729329,0.164633
-625.446,182.255,-52.3783,0.0882435,0.9403,-0.321608
262.581,1.10764,990.939,0.0932485,0.993991,-0.0492706
174.606,28.5984,993.342,0.621539,0.782501,0.0306209
-103.175,4.15197,-230.576,0.0549184,0.997758,0.0176406
-151.81,67.8647,-413.636,0.406442,0.876719,0.255258
552.276,301.413,-162.416,-0.0420099,0.758099,-0.650164
-85.2127,203.785,882.446,0.307584,0.938622,-0.153196
943.587,36.5352,940.867,0.479468,0.877017,0.00945384
-183.06,181.658,510.136,0.730565,0.679239,-0.0622033
342.39,227.736,-188.906,-0.612406,0.78457,-0.0891904
-11.1632,129.946,765.129,0.46395,0.862535,-0.193364
-349.156,196.473,-374.84,0.546894,0.836659,0.0286988
-296.306,188.628,674.964,-0.160313,0.872627,0.459328
-94.1103,6.19381,337.381,0.283645,0.956286,-0.0684168
95.1994,-1.99817,-547.375,-0.48779,0.836373,0.247072
596.654,118.05,323.916,0.0338069,0.920359,0.388588
97.2276,34.0886,-22.4322,-0.345833,0.829515,0.435694
-269.93,127.053,-334.86,0.526028,0.839976,0.132355
299.87,31.4212,477.182,-0.329315,0.911077,0.247253
-33.1617,70.5815,1107.76,0.083947,0.941898,0.323986
632.593,218.1,163.889,-0.179916,0.782434,0.595933
-185.86,184.346,504.803,0.642587,0.762576,0.0691836
572.209,27.8345,848.068,-0.296787,0.941599,0.156122
-245.993,103.714,-311.884,0.582583,0.75459,0.298715
-504.3,160.604,-23.5741,0.478929,0.872779,-0.0909219
-14.5513,9.93042,459.984,0.343206,0.938446,-0.0335945
576.375,143.845,508.696,-0.436374,0.859061,-0.266364
-523.214,286.261,-252.497,0.29657,0.866552,0.401209
-199.278,158.599,-880.816,-0.273243,0.841468,0.46139
-287.729,30.7354,-68.719,0.397417,0.917349,-0.0195027
379.917,42.9017,550.072,-0.125133,0.926801,0.353973
-345.39,176.649,272.448,0.342716,0.933356,-0.102758
-603.209,221.06,-152.464,-0.280345,0.883592,0.373603
27.9607,8.29947,-129.554,-0.480476,0.875186,0.0434002
655.839,7.01252,-542.8,-0.0843723,0.965631,0.245629
-351.142,98.3454,-138.378,0.491036,0.818634,0.297111
-695.036,239.01,200.348,-0.294229,0.950157,0.101148
-56.0642,120.004,603.899,0.563186,0.811845,-0.14581
-77.5084,156.5,956.34,0.0749431,0.766001,0.637847
-93.5622,-0.941833,225.425,-0.142366,0.985556,-0.0891368
988.042,11.6359,-592.997,0.00603648,0.941213,0.337623
26.7741,12.3387,526.657,0.381892,0.919032,-0.0885473
171.279,17.9386,343.601,-0.350933,0.899854,0.256669
526.802,205.082,-723.406,-0.283748,0.571567,0.767876
746.686,149.447,553.095,-0.0131407,0.87184,-0.484948
-224.668,98.7003,-367.195,0.563992,0.820019,-0.0854463
-225.287,131.857,324.824,0.537247,0.794041,-0.282316
232.666,0.482463,1142.08,0.109844,0.982615,0.149587
-460.915,70.0299,901.727,-0.445767,0.890107,-0.0919941
501.737,256.733,48.603,-0.540356,0.826344,0.157578
-64.5417,15.3942,407.504,0.150729,0.834913,-0.523158
312.574,48.019,-378.772,-0.619578,0.602853,-0.481841
236.327,85.4196,-676.65,-0.347384,0.674174,0.649721
540.892,255.503,104.263,-0.190226,0.97996,0.05104
192.719,90.187,-198.543,-0.538628,0.737362,-0.403391
149.04,4.93862,-483.341,0.180246,0.979799,0.0849616
73.3162,1.70633,576.327,0.201016,0.955392,-0.216057
439.03,218.837,-272.651,-0.160081,0.76977,-0.617
-440.678,89.1857,825.189,-0.308529,0.913053,0.259817
-657.513,153.681,419.638,0.305589,0.921452,0.238839
611.994,287.938,-18.9649,-0.0247094,0.773115,0.631581
-172.412,79.879,-488.048,0.397386,0.806533,-0.436895
576.891,12.6915,947.296,-0.138416,0.975656,0.169732
293.887,151.345,152.678,-0.57401,0.818233,-0.0135098
261.276,-1.46609,543.815,-0.560988,0.795007,0.228277
1228.42,3.71415,-564.577,-0.230946,0.971813,-0.0255152
824.148,172.668,-714.843,0.172787,0.74357,0.640232
-465.116,140.022,553.119,-0.402641,0.911232,0.0850184
-646.481,233.486,143.05,0.078766,0.950013,-0.300873
31.8085,196.263,-837.338,-0.0436082,0.828528,0.558182
-207.051,209.115,602.644,0.112725,0.905316,0.408764
705.697,183.448,210.347,0.511569,0.807078,0.294326
-446.157,131.901,-40.6097,0.588226,0.807271,-0.0414617
201.95,110.924,6.09103,-0.671518,0.711757,-0.202083
-5.60699,134.895,792.686,0.414714,0.860141,-0.296856
-829.231,158.076,385.12,-0.132844,0.941955,-0.308221
-462.863,133.346,585.16,-0.423933,0.88748,0.174221
692.915,200.663,617.326,0.33257,0.913118,-0.234901
123.399,67.9977,860.316,0.560777,0.741541,-0.361856
-135.412,119.842,1005.07,-0.256819,0.761241,0.595347
358.898,48.0222,520.294,-0.455421,0.863394,0.215473
359.863,32.5591,568.08,-0.163701,0.9405,0.297297
-624.868,321.633,-310.391,-0.0621736,0.802681,-0.593081
70.3186,62.0615,1060.14,0.151687,0.970901,0.184013
610.059,-1.82816,1211.8,0.12073,0.982551,-0.140463
-12.4912,4.18591,429.874,0.242047,0.960391,-0.134907
-384.056,177.47,260.631,-0.00816054,0.987123,0.157406
275.279,0.52556,1247.07,-0.0291691,0.999471,0.00315154
205.249,119.137,-137.204,-0.617138,0.759238,-0.199364
-570.475,-1.57193,-905.448,-0.197116,0.963291,0.182014
533.1,295.968,-48.0124,-0.263984,0.860805,0.434867
-75.69,166.644,756.835,0.462357,0.833075,-0.30364
259.073,170.409,-127.574,-0.506057,0.79619,-0.330554
-509.999,195.232,368.777,0.122489,0.931909,-0.33934
137.689,47.1932,934.265,0.534311,0.822581,0.191918
-790.064,173.564,136.076,-0.613533,0.783489,0.093155
181.055,5.73996,-490.052,0.145836,0.986657,-0.07213
-245.988,123.627,-407.399,0.584738,0.808497,0.064527
-554.951,203.461,70.0413,0.412762,0.794599,-0.445208
-642.222,4.36225,-751.864,0.0294999,0.958745,-0.282528
-439.037,248.624,-424.276,0.711407,0.543681,-0.442153
-162.917,157.844,487.179,0.513855,0.746665,-0.419893
633.925,195.418,611.477,-0.22399,0.93472,0.274866
245.361,37.6693,-318.918,-0.487602,0.855975,-0.165545
19.0885,6.8836,-10.1618,-0.288459,0.954485,0.0712963
-94.4968,146.377,598.829,0.585469,0.809859,-0.0339912
-748.025,150.538,496.175,0.190934,0.979239,-0.0197061
229.247,41.3926,318.755,-0.495887,0.866392,0.0310524
31.2199,10.1504,522.784,0.402487,0.908242,-0.113413
-520.174,146.928,-1152.58,-0.342547,0.670819,-0.65533
947.353,63.6729,-615.333,0.237569,0.565216,0.783561
-299.374,97.4986,-219.28,0.570328,0.815486,0.0916017
832.654,32.0179,-598.828,-0.309624,0.561353,0.763267
-485.262,198.595,179.851,-0.0206269,0.995921,0.0739288
-35.2195,113.85,643.653,0.672976,0.738327,0.0138867
-375.314,101.017,-109.966,0.346815,0.907836,0.230935
116.095,172.256,-792.898,0.126971,0.74201,0.658096
-604.906,217.255,88.6219,0.0261711,0.979479,-0.198607
-458.509,279.951,-395.002,0.748623,0.656062,-0.094932
312.978,9.61528,601.071,-0.303712,0.844093,0.441667
781.847,55.7244,976.475,-0.186518,0.83569,0.510035
702.005,76.6554,871.008,-0.211522,0.790285,0.57503
615.709,263.076,-197.215,0.394837,0.80347,-0.442655
148.645,68.737,-77.6649,-0.564699,0.822601,-0.062038
-67.9274,52.1116,1147.48,-0.190242,0.852095,0.485673
-50.1697,124.296,987.608,0.418569,0.810058,0.410477
684.362,69.8493,872.179,-0.401114,0.762991,0.506257
633.151,233.253,131.2,-0.0830258,0.993636,0.0681482
-37.6943,107.38,1021.06,0.332161,0.893075,0.302994
-632.088,209.578,-143.026,-0.198606,0.873258,0.443299
-490.071,128.384,575.196,-0.237238,0.964626,0.114412
400.902,126.731,392.699,-0.484646,0.870794,-0.0658093
35.5961,97.9496,759.307,0.602285,0.786085,-0.135571
-595.967,184.001,-2.30305,0.28286,0.957535,-0.0215309
555.959,249.17,118.673,0.211429,0.883554,0.417354
-845.671,151.524,55.0699,-0.585895,0.807677,0.0469063
590.286,0.329977,1047.53,-0.0500778,0.992279,0.112201
-136.554,159.138,966.173,-0.461434,0.750316,0.464553
-499.172,175.602,446.919,-0.320136,0.898723,0.297862
-431.62,256.981,-373.951,0.622505,0.752679,-0.20609
265.908,131.418,-217.216,-0.559258,0.733941,-0.384723
30.2728,106.696,926.618,0.575063,0.817898,-0.00719956
533.222,6.23978,1018.22,0.0732405,0.985148,0.154811
-225.425,187.253,672.974,-0.0219996,0.99782,0.0297729
698.157,222.398,85.5197,0.586912,0.729088,0.351634
87.7046,-0.36826,578.968,0.106742,0.967868,-0.227431
576.863,141.572,499.973,-0.438654,0.859132,-0.263034
386.557,30.5473,605.058,-0.258379,0.965578,0.0231187
188.179,100.234,-107.134,-0.688151,0.720398,0.0735512
194.179,-3.06767,652.672,0.347816,0.935489,0.0113883
-445.025,200.949,-487.833,0.17445,0.812041,-0.551952
-287.001,196.311,662.37,0.0190991,0.854191,0.51914
-253.145,180.174,783.783,-0.0149185,0.982418,0.185468
167.044,0.316943,699.432,-0.113807,0.993149,-0.0217509
138.389,5.93755,-476.483,0.170823,0.964881,0.188697
-454.9,182.605,133.203,0.308662,0.920368,-0.234849
656.802,239.986,102.026,0.054826,0.872045,0.485666
732.999,196.611,717.293,-0.329237,0.86474,0.378915
-306.737,217.818,610.189,-0.316852,0.897484,0.306615
466.752,125.147,-656.014,-0.235463,0.828918,0.506982
804.944,4.66777,1203.45,0.112022,0.972441,-0.204231
-21.4094,4.62433,386.823,-0.00138743,0.986023,-0.166092
570.67,107.497,389.052,0.230594,0.963002,0.139159
-673.312,127.553,566.705,-0.115356,0.965716,0.232153
269.333,52.0707,-650.147,-0.291904,0.682073,0.666495
767.995,132.147,265.57,0.664332,0.737363,-0.121919
-53.6529,108.516,1028.75,0.175323,0.89759,0.404243
-82.9298,23.7316,-356.502,0.213269,0.890615,0.399542
666.918,171.608,750.407,-0.406821,0.575586,0.702755
-310.419,182.111,685.145,-0.127769,0.854236,0.503862
-256.321,93.1843,188.713,0.629536,0.673979,-0.349153
-90.3665,7.2403,-292.226,0.195224,0.943541,0.267478
566.841,314.297,-74.5852,0.21914,0.861485,0.457682
-129.362,73.0487,-458.579,0.315595,0.882244,-0.347601
865.4,130.637,633.738,0.613121,0.632776,-0.468895
143.442,0.720371,678.635,0.0165529,0.999463,0.0272543
17.9938,114.601,772.705,0.542012,0.809162,-0.226375
-568.462,126.349,-593.935,0.0413654,0.89861,-0.434821
-473.713,185.511,444.552,-0.0715126,0.866854,0.488489
-453.947,177.275,350.937,0.522766,0.845666,-0.105564
682.604,0.943972,1155.26,0.0559523,0.994504,-0.0877223
-310.234,93.5469,957.485,-0.0819976,0.868291,0.488962
614.75,166.227,226.738,0.263441,0.852022,0.449172
-606.105,219.925,-152.663,-0.331103,0.860931,0.385465
612.798,289.585,-21.1352,-0.0317907,0.793941,0.605902
-83.2095,63.5825,1119.41,-0.213181,0.847755,0.485506
-94.4184,18.6482,-321.173,0.31973,0.892377,0.318226
669.345,214.832,162.574,0.420475,0.89338,0.138936
-258.435,27.2424,94.8755,0.650125,0.751193,0.113037
143.309,40.0191,1099.67,0.596432,0.795931,0.103186
-243.568,121.783,-406.115,0.578327,0.810907,0.0841036
565.625,21.4867,874.871,-0.344784,0.906873,0.241507
-84.6641,155.965,666.259,0.418803,0.844182,-0.331067
-197.866,-0.669748,-81.3526,0.274174,0.960934,0.033012
388.609,20.52,672.356,-0.38068,0.918123,-0.105648
-315.43,53.5165,-54.8736,0.506761,0.849478,0.146083
-168.535,173.063,878.294,-0.361495,0.922937,0.129865
-254.834,197.585,651.342,0.0589737,0.801265,0.594168
-333.42,166.334,710.558,-0.120222,0.857754,0.498669
-710.471,200.156,-7.31397,-0.20107,0.900221,-0.385643
628.496,226.853,150.038,-0.022451,0.854011,0.519067
-108.576,0.937954,-129.762,0.624152,0.774534,0.0829638
-303.642,87.971,-562.779,0.206781,0.750391,-0.627748
-545.043,290.822,-285.493,0.609187,0.790842,-0.0542425
96.384,13.8972,691.304,0.375923,0.925499,-0.0441278
-595.209,100.869,637.915,-0.12483,0.966749,0.212336
562.529,178.431,610.92,-0.316047,0.944265,0.0885248
-415.896,114.109,780.092,-0.563146,0.798321,0.210555
340.896,20.2091,-613.133,-0.46226,0.774383,0.429801
-546.241,291.03,-271.974,0.518642,0.848183,0.0901597
-462.587,133.003,-953.106,-0.233548,0.669095,0.69962
-175.915,162.936,463.663,0.759912,0.64063,-0.0982799
250.383,46.7238,340.607,-0.332306,0.927328,0.17175
583.625,37.8845,828.347,-0.396617,0.835759,0.379485
906.062,124.137,763.403,0.613089,0.789004,0.0182909
-141.705,92.3616,1044.27,-0.509519,0.770326,0.381622
-240.031,85.125,982.66,-0.125409,0.810464,0.571157
441.253,67.52,613.965,-0.571121,0.685025,0.450458
-141.181,187.724,609.696,0.624952,0.77832,0.0583868
486.475,279.643,-61.7347,-0.208204,0.959713,0.186451
63.6599,70.5111,1029.29,0.0973574,0.93602,0.335092
18.2091,111.221,963.058,0.448163,0.860856,0.23965
-164.988,171.469,517.892,0.371238,0.77001,-0.517506
255.366,58.0972,300.083,-0.400966,0.876465,0.263939
745.476,264.472,-50.9303,0.310884,0.553356,-0.771933
743.741,267.068,-873.865,0.586045,0.793785,-0.156132
-722.052,166.671,437.292,0.243352,0.852488,0.460862
582.458,78.1706,-599.675,0.0578497,0.442696,0.893143
325.33,4.19719,-524.465,-0.184151,0.977244,-0.104881
-290.912,37.2039,-42.4159,0.567511,0.801045,0.18857
-556.028,78.1445,-662.532,0.0745794,0.595257,-0.799325
611.01,252.522,75.4861,-0.329686,0.902845,0.268334
961.067,-1.75392,-505.366,-0.246627,0.962633,0.111833
-440.744,263.897,-381.557,0.703788,0.708613,-0.0265933
906.388,16.4136,1105.92,-0.185641,0.97765,0.0968242
607.024,-0.336594,1181.25,0.0352212,0.994314,0.0993411
499.654,240.458,120.659,-0.520957,0.829685,0.19237
-643.191,202.633,8.66944,0.430139,0.835086,-0.341815
384.383,50.1992,533.037,-0.28358,0.852215,0.434604
-373.255,132.347,98.2865,0.578888,0.790876,-0.195403
176.967,1.83631,756.197,-0.0101493,0.999894,-0.00702411
-458.445,71.4734,902.886,-0.367075,0.924753,-0.0971562
-221.668,213.056,540.642,0.261133,0.887586,-0.378474
353.444,48.5778,500.867,-0.517602,0.816317,0.254794
-730.77,226.01,229.39,-0.288582,0.82432,0.486685
-738.78,196.837,28.3951,-0.39781,0.896818,0.184521
-218.371,5.12563,-100.49,0.189074,0.974614,0.119741
26.3461,122.475,883.24,0.560483,0.745641,0.359983
13.3951,129.832,889.765,0.588005,0.681925,0.432406
530.126,148.386,636.054,-0.50652,0.744422,0.4321
-443.901,130.251,-47.461,0.637646,0.768779,0.0419496
538.162,254.712,106.085,-0.244266,0.965931,0.0794372
-443.458,120.174,742.881,-0.252855,0.839727,0.480242
-167.577,163.67,930.752,-0.383922,0.811705,0.43964
549.13,66.8027,748.421,-0.371394,0.737955,0.562088
-725.466,176.235,340.12,-0.416882,0.90888,0.011628
-377.576,132.134,89.1973,0.49326,0.828643,-0.263626
710.322,146.101,-667.15,0.107677,0.690392,0.714658
664.521,193.302,718.925,-0.309512,0.849507,0.427233
-61.2729,125.747,-780.423,-0.250866,0.506172,0.824567
780.385,130.913,833.337,-0.0243448,0.600157,0.791735
144.68,-0.698003,-442.786,0.0194115,0.994815,0.0956872
-20.0511,7.08259,435.147,0.2668,0.957694,-0.107222
675.115,200.473,703.989,0.0416132,0.983844,0.172948
-635.694,197.499,-1.23407,0.181672,0.979379,-0.0873836
-450.988,107.332,764.071,-0.331704,0.881839,0.335152
356.364,249.591,-152.374,-0.486485,0.830209,-0.267992
800.014,42.9266,1009.89,0.0905806,0.905039,0.41527
700.368,159.059,558.077,0.204671,0.750687,-0.628051
-170.568,175.794,-890.536,-0.144333,0.878054,0.455815
-393.711,111.02,-122.593,0.494373,0.825557,0.265193
825.18,3.28781,1220.52,0.036056,0.989374,0.137411
-88.7967,140.021,546.749,0.717865,0.664792,-0.191777
-352.25,117.848,119.535,0.599135,0.750048,-0.275425
358.052,68.8395,452.229,-0.604778,0.747757,0.26896
802.416,46.8818,999.394,-0.0441436,0.95181,0.298828
-175.021,190.842,763.323,0.172497,0.984453,-0.0186998
23.3454,127.587,875.164,0.563722,0.807193,0.174658
-678.335,128.528,558.81,-0.139954,0.978356,0.151244
-662.838,206.909,0.473378,0.165851,0.846027,-0.505837
182.833,6.62623,-347.722,-0.282475,0.957919,-0.0505785
-532.493,107.149,640.438,-0.305789,0.946097,0.10655
641.041,200.556,599.417,-0.287454,0.953929,0.0743281
-500.45,179.783,79.5882,0.317693,0.909878,-0.265718
-445.847,131.899,-54.8286,0.658731,0.7399,-0.128027
-717.051,178.201,344.886,-0.256536,0.960641,0.0938389
170.462,76.3662,15.2191,-0.777896,0.616411,0.101948
-267.418,81.7354,-235.562,0.249316,0.727694,0.638577
736.034,152.728,250.617,0.417964,0.891252,0.175657
315.438,39.2493,476.255,-0.43058,0.857407,0.278315
338.004,20.4457,-429.637,0.0312632,0.89988,-0.429402
933.976,15.7019,-585.964,0.24895,0.779032,0.574579
-462.081,292.039,-367.297,0.484349,0.606197,-0.627467
-679.298,273.382,-301.661,-0.646784,0.601885,0.454743
-410.877,129.045,-161.064,0.307543,0.904156,0.295201
-265.161,130.645,-469.925,0.308814,0.854598,-0.416943
-725.786,162.678,447.475,0.257865,0.802935,0.536322
305.354,21.6411,508.556,-0.296521,0.858882,0.413326
171.913,5.30447,-468.013,-0.142067,0.987962,0.0606082
420.476,11.2371,764.308,-0.331371,0.943163,-0.00075878
17.1863,5.44312,-81.7985,-0.489603,0.868037,-0.0681567
533.313,202.241,-721.016,0.0769899,0.42461,0.901883
-204.951,212.741,593.852,-0.0474365,0.902721,0.427419
471.769,229.688,120.422,-0.348846,0.81578,0.458801
-569.824,234.494,-181.546,-0.138968,0.92871,0.3435
-367.157,211.234,-353.541,0.599492,0.798986,-0.044667
235.6,55.6888,257.237,-0.302479,0.785372,0.535789
645.359,229.706,146.501,0.101371,0.887131,0.447303
-27.6212,103.485,655.476,0.710157,0.68371,0.158778
-430.82,126.951,-580.667,0.081285,0.736717,-0.670926
869.041,120.079,799.916,0.223585,0.856366,0.464921
178.205,92.8836,-105.345,-0.603482,0.796139,-0.000997389
-366.374,56.8121,997.009,-0.461087,0.836438,0.295748
77.2459,-2.22268,554.834,0.238115,0.95793,-0.158016
-435.565,124.098,-30.0803,0.56417,0.82537,0.00699501
-538.315,287.963,-245.04,-0.150894,0.958754,0.160811
1198.69,6.9373,-670.783,0.288535,0.933202,0.211508
-201.994,21.2911,189.855,0.741532,0.634615,-0.197333
819.628,110.279,868.073,0.0967487,0.92355,0.369138
685.402,0.47751,1152.26,0.0824316,0.993536,-0.0776726
256.576,59.9727,293.648,-0.472471,0.866961,0.157503
536.577,293.065,-173.27,0.255265,0.813689,-0.52032
-662.179,224.125,262.623,-0.028675,0.979078,0.199963
543.397,125.668,333.174,0.343135,0.927046,0.14813
234.923,88.5886,188.492,-0.820354,0.462047,0.30985
-618.675,162.274,403.233,0.0252913,0.839871,0.53649
465.224,9.14607,-528.384,0.0255861,0.908685,0.416338
-684.299,189.202,-127.811,-0.265357,0.948485,0.172392
50.4725,1.70718,-214.863,-0.163435,0.985801,0.0367554
286.023,159.19,33.6222,-0.494178,0.820086,0.279397
-374.527,167.126,201.659,0.469992,0.805863,-0.358662
726.032,192.668,723.289,-0.174361,0.947995,0.265735
-54.5951,15.1453,-382.901,0.454722,0.878247,0.14458
-710.629,169.675,425.693,0.283143,0.882682,0.373717
149.056,35.885,1101.88,0.564332,0.821848,0.077822
53.1506,13.2929,611.864,0.364267,0.910952,-0.190524
397.659,72.4655,506.506,-0.272976,0.788346,0.550007
862.229,205.152,-808.154,0.0951049,0.885689,0.452196
-152.681,4.80147,247.234,0.216167,0.976121,-0.020715
343.093,161.914,229.066,-0.342322,0.815971,0.465417
-233.732,25.9999,-765.57,-0.793173,0.282754,0.53385
-355.792,189.828,-420.914,0.263184,0.880417,-0.393282
304.599,6.88334,-446.537,-0.176701,0.981123,-0.0636001
36.522,5.03312,140.17,-0.276517,0.959656,-0.0436741
564.623,213.498,-337.567,0.120695,0.912563,-0.384823
-209.254,99.2567,-414.063,0.70972,0.69454,0.109065
522.37,303.013,-161.345,0.258898,0.816223,-0.51529
-592.004,150.286,465.148,-0.431877,0.889814,0.14628
-778.413,184.598,-4.70509,-0.178296,0.942353,-0.283081
-660.721,217.205,-458.32,0.0342511,0.789463,-0.607054
-745.462,153.028,486.614,0.231708,0.896398,0.377856
166.761,30.4463,217.29,-0.279435,0.959529,0.0294482
429.273,-0.744254,884.115,-0.369964,0.846245,0.381549
593.336,2.35907,1145.03,0.110298,0.987213,0.115028
-292.185,201.708,469.933,0.028953,0.998716,-0.0208423
557.083,167.038,565.597,-0.371396,0.889849,-0.264175
175.368,20.6664,933.846,0.537396,0.829363,0.146509
-562.576,87.0034,748.491,-0.372758,0.862601,0.340173
-285.732,193.613,402.394,0.330073,0.940828,0.0745277
656.078,177.662,554.997,0.372714,0.775335,-0.503456
456.652,93.4559,-622.88,-0.278531,0.705132,0.650678
-671.73,221.659,-457.632,0.237354,0.632558,-0.736975
-346.557,127.586,-216.473,0.577233,0.777283,0.249376
-704.297,237.37,191.111,-0.0345753,0.997179,0.0629107
-413.469,173.877,379.347,0.0913107,0.984954,-0.137645
-351.474,121.137,128.62,0.609437,0.657275,-0.4384
834.499,180.116,665.354,0.582245,0.655408,-0.476528
207.735,11.4995,-358.954,-0.296096,0.937735,-0.181129
552.549,138.39,293.279,0.164212,0.838742,0.518936
152.802,2.13276,-614.651,-0.155669,0.975499,0.154284
-269.967,78.6757,-231.252,0.281309,0.712042,0.643013
611.367,118.337,321.794,-0.238338,0.853225,0.461862
-404.716,109.089,-594.641,0.306433,0.632987,-0.708393
-420.655,124.206,745.91,-0.263066,0.850253,0.455189
819.943,57.0145,969.751,0.0564586,0.935134,0.348278
-116.644,50.4853,-496.154,0.11947,0.801008,-0.577059
296.102,147.587,-257.91,-0.501539,0.702998,-0.502562
-117.496,173.415,633.946,0.54318,0.827522,-0.141423
915.899,17.1537,1089.6,-0.0431829,0.996101,-0.0741618
-127.739,-2.75644,-58.7685,0.133149,0.84212,-0.515336
-187.999,191.128,528.223,0.534013,0.764093,-0.361479
-671.353,128.932,560.977,-0.061673,0.982911,0.173365
599.873,186.06,632.174,-0.175439,0.900047,0.398183
987.502,76.3745,-638.876,0.337048,0.67571,0.654306
-30.6026,26.4702,-444.883,0.560934,0.806838,0.184951
676.942,94.7513,424.528,0.370763,0.859663,-0.350416
-508.625,82.0027,-635.196,-0.0177139,0.747789,-0.663583
401.247,104.087,474.844,-0.739535,0.642646,0.19641
-205.281,6.1773,124.061,0.26041,0.963167,-0.0645496
21.0266,-0.831643,110.235,-0.290719,0.944531,0.132494
1187.75,8.51765,-666.519,0.168892,0.927859,0.332451
814.866,133.553,546.649,0.380679,0.915403,-0.130086
29.8328,4.57435,495.713,0.22389,0.943403,-0.244026
217.869,-0.258435,805.598,0.137385,0.980907,0.137415
444.812,185.355,-326.783,-0.267175,0.775017,-0.572533
-424.686,231.399,-433.137,0.355869,0.763989,-0.536928
849.086,158.863,646.117,0.329231,0.737361,-0.585918
549.156,113.337,415.995,0.360371,0.920758,-0.149079
-328.995,75.2347,-89.7079,0.442622,0.885842,0.136393
394.64,56.2535,529.78,-0.365462,0.835239,0.410597
-483.1,134.973,538.869,-0.231074,0.958917,0.162629
-158.457,1.91695,168.487,0.115741,0.992233,-0.0395075
-425.285,224.203,-442.836,0.562222,0.684172,-0.446214
-188.812,112.708,969.956,-0.320576,0.574924,0.751308
-315.844,167.536,-419.044,0.64734,0.753693,-0.109871
-446.92,150.513,-111.392,0.548089,0.834109,-0.0545953
303.748,2.67036,-503.449,-0.0809884,0.966575,-0.240738
-313.341,188.934,340.936,0.154534,0.974069,-0.161224
705.779,14.8014,1040.74,-0.290798,0.939724,0.179645
-549.687,193.539,57.6759,0.437755,0.776966,-0.452261
519.163,193.052,-342.532,-0.393445,0.662479,-0.6373
-366.899,177.621,246.984,-0.0439576,0.997152,0.0536508
274.357,4.62638,-575.193,-0.0999599,0.968774,0.226699
-591.708,6.35387,-729.863,0.174454,0.974346,-0.139278
748.396,158.694,-264.143,0.500596,0.862613,0.0376944
